ply
format ascii 1.0
element vertex 1196
property float x
property float y
property float z
property uchar red
property uchar green
property uchar blue
end_header
-0.18669724 -0.14662579 1.025 69 67 68
-0.18490657 -0.14662579 1.025 68 66 67
-0.18257995 -0.14619663 1.022 68 68 70
-0.18079452 -0.14619663 1.022 67 68 72
-0.1790091 -0.14619663 1.022 67 67 69
-0.17774388 -0.14662579 1.025 74 73 69
-0.18487963 -0.15406436 1.077 90 87 78
-0.1829981 -0.15406436 1.077 132 128 117
-0.1811166 -0.15406436 1.077 134 131 116
-0.17923509 -0.15406436 1.077 136 134 119
-0.17735358 -0.15406436 1.077 139 137 122
-0.17547205 -0.15406436 1.077 142 140 125
-0.17359054 -0.15406436 1.077 144 142 127
-0.17170903 -0.15406436 1.077 149 146 129
-0.1698275 -0.15406436 1.077 153 147 131
-0.16841382 -0.15449351 1.08 153 147 131
-0.16652706 -0.15449351 1.08 154 148 134
-0.1646403 -0.15449351 1.08 155 149 137
-0.16275355 -0.15449351 1.08 156 150 136
-0.1608668 -0.15449351 1.08 159 151 132
-0.15898004 -0.15449351 1.08 161 153 132
-0.15709329 -0.15449351 1.08 160 153 134
-0.15520653 -0.15449351 1.08 161 154 135
-0.15331978 -0.15449351 1.08 165 157 138
-0.15199389 -0.15506572 1.084 166 158 139
-0.15010014 -0.15506572 1.084 168 156 140
-0.1482064 -0.15506572 1.084 167 158 141
-0.14671758 -0.15549485 1.087 165 160 141
-0.1448186 -0.15549485 1.087 164 161 142
-0.14331405 -0.155924 1.09 166 161 141
-0.14140983 -0.155924 1.09 163 157 135
-0.13950561 -0.155924 1.09 160 149 129
-0.13760138 -0.155924 1.09 158 146 124
-0.13619512 -0.1564962 1.094 143 131 109
-0.13428392 -0.1564962 1.094 135 123 101
-0.1327357 -0.15692535 1.097 124 113 93
-0.117701545 -0.1411899 0.987 125 108 90
-0.11597726 -0.1411899 0.987 135 106 92
-0.11483177 -0.14190514 0.992 109 67 55
-0.11309875 -0.14190514 0.992 113 59 47
-0.11136573 -0.14190514 0.992 128 64 54
-0.10963271 -0.14190514 0.992 136 68 57
-0.10789969 -0.14190514 0.992 145 73 61
-0.1058456 -0.141476 0.989 146 72 59
-0.10411782 -0.141476 0.989 150 74 60
-0.10239004 -0.141476 0.989 154 77 61
-0.10066226 -0.141476 0.989 158 79 62
-0.09893449 -0.141476 0.989 161 80 63
-0.09720671 -0.141476 0.989 161 78 62
-0.09547893 -0.141476 0.989 161 75 60
-0.093751155 -0.141476 0.989 159 73 58
-0.092302516 -0.14190514 0.992 157 71 56
-0.090843394 -0.1423343 0.995 163 75 63
-0.08910514 -0.1423343 0.995 160 71 63
-0.08736687 -0.1423343 0.995 148 67 63
-0.085628614 -0.1423343 0.995 121 57 55
-0.083890356 -0.1423343 0.995 61 21 22
-0.08215209 -0.1423343 0.995 36 21 28
-0.08930381 -0.15806974 1.105 29 27 41
-0.087373376 -0.15806974 1.105 25 21 44
-0.085442945 -0.15806974 1.105 24 21 50
-0.083512515 -0.15806974 1.105 24 24 52
-0.081582084 -0.15806974 1.105 24 25 55
-0.079363324 -0.15749756 1.101 20 24 53
-0.07743988 -0.15749756 1.101 19 22 53
-0.07524209 -0.15692535 1.097 20 23 56
-0.0731251 -0.1564962 1.094 21 21 57
-0.07121389 -0.1564962 1.094 23 21 58
-0.069049284 -0.155924 1.09 24 23 57
-0.066775456 -0.15506572 1.084 24 22 59
-0.06488171 -0.15506572 1.084 25 24 58
-0.06275554 -0.15449351 1.08 26 25 59
-0.06086879 -0.15449351 1.08 27 25 62
-0.058818195 -0.15406436 1.077 28 28 66
-0.05693668 -0.15406436 1.077 30 29 69
-0.055055168 -0.15406436 1.077 33 32 72
-0.052976165 -0.15349217 1.073 36 35 69
-0.05110164 -0.15349217 1.073 39 36 63
-0.04922711 -0.15349217 1.073 51 40 57
-0.047352586 -0.15349217 1.073 71 43 57
-0.045647595 -0.15406436 1.077 164 122 132
-0.039743017 -0.13990246 0.978 185 140 147
-0.037917785 -0.1394733 0.975 195 146 150
-0.036214463 -0.1394733 0.975 193 145 145
-0.034511145 -0.1394733 0.975 197 147 146
-0.032807823 -0.1394733 0.975 199 149 148
-0.0310407 -0.1391872 0.973 200 149 148
-0.029340873 -0.1391872 0.973 206 152 152
-0.027641047 -0.1391872 0.973 211 152 154
-0.025861237 -0.13875806 0.97 209 149 149
-0.024166651 -0.13875806 0.97 214 153 152
-0.022402566 -0.13832891 0.967 215 151 151
-0.020713221 -0.13832891 0.967 217 153 151
-0.019023877 -0.13832891 0.967 217 156 153
-0.017334532 -0.13832891 0.967 216 155 150
-0.015645187 -0.13832891 0.967 216 155 150
-0.013955843 -0.13832891 0.967 218 157 154
-0.012266499 -0.13832891 0.967 221 157 155
-0.010577154 -0.13832891 0.967 220 156 156
-0.008915383 -0.13875806 0.97 220 156 157
-0.0072207977 -0.13875806 0.97 218 157 156
-0.0055262125 -0.13875806 0.97 218 157 154
-0.0038434775 -0.1391872 0.973 217 156 151
-0.002143651 -0.1391872 0.973 216 155 150
-0.00044382465 -0.1391872 0.973 214 155 149
0.0012560018 -0.1391872 0.973 211 153 149
0.0029619038 -0.1394733 0.975 209 151 147
0.0046652243 -0.1394733 0.975 207 149 145
0.0063685444 -0.1394733 0.975 207 152 147
0.008071865 -0.1394733 0.975 175 125 118
0.009775185 -0.1394733 0.975 128 87 81
0.011478506 -0.1394733 0.975 108 80 79
0.015750593 -0.16665272 1.165 96 81 86
0.017785842 -0.16665272 1.165 108 107 121
0.01982109 -0.16665272 1.165 106 114 127
0.021931384 -0.16722491 1.169 116 123 129
0.023973621 -0.16722491 1.169 128 136 139
0.02592684 -0.16665272 1.165 144 149 153
0.027962089 -0.16665272 1.165 149 154 158
0.029997338 -0.16665272 1.165 157 162 166
0.031922605 -0.16608052 1.161 159 163 166
0.033950865 -0.16608052 1.161 162 163 165
0.03597913 -0.16608052 1.161 164 160 159
0.033653397 -0.14705494 1.028 167 153 152
0.03544931 -0.14705494 1.028 168 144 140
0.03713653 -0.14662579 1.025 174 136 133
0.038927197 -0.14662579 1.025 181 133 129
0.040598694 -0.14619663 1.022 183 126 119
0.042384125 -0.14619663 1.022 183 123 113
0.044169553 -0.14619663 1.022 182 120 107
0.045954984 -0.14619663 1.022 174 121 107
0.04774041 -0.14619663 1.022 172 134 121
0.049525842 -0.14619663 1.022 222 200 189
0.05788835 -0.16493613 1.153 216 209 203
0.059902634 -0.16493613 1.153 202 202 202
0.06191692 -0.16493613 1.153 199 202 207
0.06437479 -0.16608052 1.161 197 200 207
0.06663183 -0.16665272 1.165 200 203 210
0.06866708 -0.16665272 1.165 202 205 210
0.070945084 -0.16722491 1.169 214 218 221
0.07298732 -0.16722491 1.169 218 218 218
0.07528629 -0.16779712 1.173 212 207 203
0.077599235 -0.16836932 1.177 103 94 89
0.079655446 -0.16836932 1.177 12 1 0
0.08143397 -0.16779712 1.173 43 34 27
0.08348319 -0.16779712 1.173 47 43 40
0.08582409 -0.16836932 1.177 51 47 44
0.0878803 -0.16836932 1.177 50 44 44
0.08993651 -0.16836932 1.177 50 43 50
0.09199273 -0.16836932 1.177 25 17 40
0.09404894 -0.16836932 1.177 4 0 31
0.09610515 -0.16836932 1.177 128 128 164
0.09849496 -0.16894151 1.181 199 202 235
0.10055817 -0.16894151 1.181 218 225 244
0.10262137 -0.16894151 1.181 212 218 230
0.10468457 -0.16894151 1.181 215 218 223
0.10674777 -0.16894151 1.181 216 217 222
0.10881097 -0.16894151 1.181 214 217 226
0.110874176 -0.16894151 1.181 215 218 227
0.112937376 -0.16894151 1.181 220 223 230
0.115000576 -0.16894151 1.181 210 212 211
0.117063776 -0.16894151 1.181 128 124 115
0.119126976 -0.16894151 1.181 10 3 0
0.12119018 -0.16894151 1.181 6 0 2
0.12325338 -0.16894151 1.181 11 8 15
0.12531659 -0.16894151 1.181 3 4 8
0.12737979 -0.16894151 1.181 0 5 8
0.12944299 -0.16894151 1.181 17 26 23
0.13150619 -0.16894151 1.181 15 20 16
0.13356939 -0.16894151 1.181 26 22 21
0.13563259 -0.16894151 1.181 30 20 19
0.13769579 -0.16894151 1.181 31 17 17
0.14023235 -0.16951372 1.185 28 14 14
0.14230254 -0.16951372 1.185 42 33 34
0.14437273 -0.16951372 1.185 42 38 39
0.14644292 -0.16951372 1.185 44 39 46
0.14851311 -0.16951372 1.185 45 39 53
-0.24749708 -0.11968625 0.847 64 58 62
-0.24601738 -0.11968625 0.847 68 66 71
-0.24453767 -0.11968625 0.847 73 81 84
-0.24305797 -0.11968625 0.847 69 79 81
-0.24157827 -0.11968625 0.847 68 73 79
-0.24009855 -0.11968625 0.847 70 73 80
-0.23805541 -0.11940364 0.845 70 70 78
-0.2365792 -0.11940364 0.845 67 66 74
-0.23510298 -0.11940364 0.845 66 65 73
-0.23362677 -0.11940364 0.845 68 69 74
-0.23215057 -0.11940364 0.845 68 72 75
-0.23067436 -0.11940364 0.845 68 73 76
-0.22865567 -0.11912103 0.843 65 70 76
-0.22664396 -0.118838415 0.841 55 59 70
-0.22517474 -0.118838415 0.841 45 44 58
-0.22370552 -0.118838415 0.841 42 40 54
-0.22223629 -0.118838415 0.841 53 47 61
-0.22129208 -0.11912103 0.843 63 58 65
-0.21929784 -0.118838415 0.841 67 61 65
-0.21782862 -0.118838415 0.841 67 63 62
-0.26060888 -0.14314306 1.013 68 64 61
-0.25883916 -0.14314306 1.013 67 66 61
-0.25706947 -0.14314306 1.013 67 66 61
-0.25605583 -0.14356698 1.016 66 67 59
-0.2542809 -0.14356698 1.016 66 67 61
-0.25325152 -0.1439909 1.019 66 69 62
-0.25147134 -0.1439909 1.019 65 67 62
-0.24969114 -0.1439909 1.019 65 67 62
-0.24791096 -0.1439909 1.019 64 69 65
-0.24613078 -0.1439909 1.019 64 68 67
-0.24435058 -0.1439909 1.019 64 68 67
-0.2425704 -0.1439909 1.019 64 68 67
-0.2407902 -0.1439909 1.019 65 69 68
-0.23901002 -0.1439909 1.019 66 70 69
-0.23722984 -0.1439909 1.019 69 74 70
-0.23544964 -0.1439909 1.019 68 73 67
-0.23366946 -0.1439909 1.019 68 73 67
-0.23188926 -0.1439909 1.019 69 74 67
-0.23010908 -0.1439909 1.019 69 75 65
-0.2283289 -0.1439909 1.019 67 73 61
-0.22788265 -0.14483874 1.025 68 71 60
-0.22609198 -0.14483874 1.025 69 73 59
-0.22430131 -0.14483874 1.025 68 71 60
-0.22251064 -0.14483874 1.025 70 73 62
-0.22071998 -0.14483874 1.025 72 75 64
-0.2189293 -0.14483874 1.025 72 75 66
-0.2165031 -0.14441481 1.022 72 75 68
-0.21471767 -0.14441481 1.022 71 73 68
-0.21293224 -0.14441481 1.022 70 72 69
-0.21114682 -0.14441481 1.022 69 71 68
-0.20936139 -0.14441481 1.022 68 70 67
-0.20757596 -0.14441481 1.022 67 69 64
-0.20579053 -0.14441481 1.022 67 70 63
-0.20400509 -0.14441481 1.022 68 71 62
-0.20221967 -0.14441481 1.022 69 73 59
-0.20043424 -0.14441481 1.022 69 73 59
-0.19923192 -0.14483874 1.025 69 73 58
-0.19744126 -0.14483874 1.025 69 73 58
-0.19565059 -0.14483874 1.025 69 71 58
-0.19329253 -0.14441481 1.022 69 71 60
-0.1915071 -0.14441481 1.022 68 69 61
-0.18972166 -0.14441481 1.022 69 70 64
-0.18793623 -0.14441481 1.022 71 70 65
-0.1861508 -0.14441481 1.022 69 68 64
-0.18382418 -0.1439909 1.019 70 69 67
-0.182044 -0.1439909 1.019 71 71 71
-0.18026382 -0.1439909 1.019 67 67 69
-0.17848362 -0.1439909 1.019 68 66 67
-0.17670344 -0.1439909 1.019 74 71 66
-0.18539461 -0.15261057 1.08 91 87 76
-0.1829981 -0.15218665 1.077 131 125 111
-0.1811166 -0.15218665 1.077 136 130 114
-0.17923509 -0.15218665 1.077 137 134 117
-0.17735358 -0.15218665 1.077 139 137 122
-0.17547205 -0.15218665 1.077 142 140 125
-0.17407408 -0.15261057 1.08 144 142 127
-0.17218733 -0.15261057 1.08 147 144 127
-0.17030057 -0.15261057 1.08 150 145 126
-0.16841382 -0.15261057 1.08 153 146 128
-0.16652706 -0.15261057 1.08 153 148 129
-0.1646403 -0.15261057 1.08 154 151 134
-0.16275355 -0.15261057 1.08 158 152 136
-0.1614626 -0.15317579 1.084 160 153 134
-0.15898004 -0.15261057 1.08 161 155 133
-0.15709329 -0.15261057 1.08 159 154 134
-0.15578137 -0.15317579 1.084 159 154 134
-0.15388763 -0.15317579 1.084 163 156 137
-0.15199389 -0.15317579 1.084 166 158 139
-0.15010014 -0.15317579 1.084 169 158 140
-0.1482064 -0.15317579 1.084 168 160 141
-0.14671758 -0.15359971 1.087 164 159 139
-0.1448186 -0.15359971 1.087 162 160 139
-0.14331405 -0.15402363 1.09 161 159 138
-0.14140983 -0.15402363 1.09 163 156 137
-0.13950561 -0.15402363 1.09 162 151 133
-0.13810635 -0.15458885 1.094 162 149 132
-0.1365686 -0.15501277 1.097 156 143 126
-0.13465215 -0.15501277 1.097 149 136 119
-0.1327357 -0.15501277 1.097 153 137 121
-0.117940046 -0.13975172 0.989 138 115 101
-0.11621227 -0.13975172 0.989 129 95 83
-0.11483177 -0.14017563 0.992 107 60 50
-0.113440774 -0.14059955 0.995 108 49 41
-0.11170252 -0.14059955 0.995 119 55 46
-0.10996426 -0.14059955 0.995 129 61 50
-0.10789969 -0.14017563 0.992 142 70 58
-0.10616667 -0.14017563 0.992 150 76 63
-0.10443365 -0.14017563 0.992 152 76 63
-0.10239004 -0.13975172 0.989 152 73 60
-0.10066226 -0.13975172 0.989 152 70 56
-0.09893449 -0.13975172 0.989 153 70 54
-0.09750157 -0.14017563 0.992 156 70 55
-0.095768556 -0.14017563 0.992 156 70 55
-0.094035536 -0.14017563 0.992 154 68 53
-0.092302516 -0.14017563 0.992 156 69 59
-0.090843394 -0.14059955 0.995 161 72 64
-0.08910514 -0.14059955 0.995 166 73 66
-0.087630294 -0.14102347 0.998 148 65 61
-0.08588679 -0.14102347 0.998 114 50 48
-0.08414329 -0.14102347 0.998 53 13 13
-0.082399786 -0.14102347 0.998 36 17 23
-0.089546256 -0.15656714 1.108 28 22 36
-0.08761059 -0.15656714 1.108 25 21 44
-0.085442945 -0.15614322 1.105 22 19 46
-0.083512515 -0.15614322 1.105 22 19 48
-0.081582084 -0.15614322 1.105 21 21 49
-0.079651654 -0.15614322 1.105 17 21 50
-0.07743988 -0.155578 1.101 19 23 52
-0.07551644 -0.155578 1.101 23 24 54
-0.073325634 -0.15501277 1.097 25 24 55
-0.07140917 -0.15501277 1.097 23 22 53
-0.069049284 -0.15402363 1.09 23 22 53
-0.06696026 -0.15359971 1.087 23 24 55
-0.06506128 -0.15359971 1.087 24 25 56
-0.06298797 -0.15317579 1.084 25 24 56
-0.06086879 -0.15261057 1.08 25 24 58
-0.058982033 -0.15261057 1.08 26 24 61
-0.05693668 -0.15218665 1.077 28 26 65
-0.055055168 -0.15218665 1.077 33 28 68
-0.053173654 -0.15218665 1.077 26 20 54
-0.05129214 -0.15218665 1.077 17 12 34
-0.049410623 -0.15218665 1.077 71 55 68
-0.04752911 -0.15218665 1.077 121 86 93
-0.04157873 -0.13862127 0.981 188 142 145
-0.039743017 -0.13819735 0.978 192 142 143
-0.038034454 -0.13819735 0.978 187 137 136
-0.036214463 -0.13777342 0.975 193 143 142
-0.034511145 -0.13777342 0.975 196 146 145
-0.032740526 -0.13749082 0.973 199 148 147
-0.030944994 -0.1370669 0.97 201 146 149
-0.029250408 -0.1370669 0.97 207 148 152
-0.027555823 -0.1370669 0.97 210 150 152
-0.025781253 -0.13664298 0.967 209 147 148
-0.024091909 -0.13664298 0.967 213 152 151
-0.022402566 -0.13664298 0.967 213 152 149
-0.020713221 -0.13664298 0.967 215 154 151
-0.019023877 -0.13664298 0.967 216 155 150
-0.017334532 -0.13664298 0.967 216 155 150
-0.015645187 -0.13664298 0.967 216 155 152
-0.013955843 -0.13664298 0.967 217 156 153
-0.012266499 -0.13664298 0.967 217 155 156
-0.010577154 -0.13664298 0.967 216 154 155
-0.00888781 -0.13664298 0.967 217 155 156
-0.0072207977 -0.1370669 0.97 217 156 155
-0.0055262125 -0.1370669 0.97 217 156 151
-0.003831627 -0.1370669 0.97 216 156 148
-0.0021370417 -0.1370669 0.97 217 154 147
-0.00044245625 -0.1370669 0.97 214 153 148
0.0012521292 -0.1370669 0.97 212 151 150
0.0029467146 -0.1370669 0.97 209 151 149
0.0046413 -0.1370669 0.97 204 149 146
0.0063358853 -0.1370669 0.97 204 151 145
0.008071865 -0.13777342 0.975 193 140 132
0.009775185 -0.13777342 0.975 158 109 105
0.011478506 -0.13777342 0.975 114 75 78
0.01580467 -0.16518681 1.169 90 64 77
0.017846908 -0.16518681 1.169 81 76 98
0.019889146 -0.16518681 1.169 70 75 95
0.021931384 -0.16518681 1.169 61 67 79
0.023973621 -0.16518681 1.169 83 87 96
0.02601586 -0.16518681 1.169 111 116 122
0.028058097 -0.16518681 1.169 132 135 140
0.029997338 -0.16462159 1.165 153 157 160
0.032032587 -0.16462159 1.165 162 163 165
0.034067836 -0.16462159 1.165 167 166 164
0.03610309 -0.16462159 1.165 172 162 160
0.033653397 -0.14526266 1.028 165 144 141
0.03544931 -0.14526266 1.028 174 140 138
0.03713653 -0.14483874 1.025 181 136 133
0.038927197 -0.14483874 1.025 188 133 130
0.040598694 -0.14441481 1.022 188 129 123
0.042384125 -0.14441481 1.022 186 126 116
0.044169553 -0.14441481 1.022 179 120 106
0.045954984 -0.14441481 1.022 180 131 117
0.04774041 -0.14441481 1.022 190 158 147
0.055680227 -0.16236068 1.149 221 204 196
0.057687525 -0.16236068 1.149 215 210 207
0.06011045 -0.16349113 1.157 209 210 212
0.062131725 -0.16349113 1.157 207 210 215
0.06459658 -0.16462159 1.165 201 206 212
0.06663183 -0.16462159 1.165 207 210 217
0.06866708 -0.16462159 1.165 216 219 226
0.070945084 -0.16518681 1.169 223 228 232
0.07298732 -0.16518681 1.169 230 231 233
0.07502956 -0.16518681 1.169 227 223 222
0.077335514 -0.16575204 1.173 140 133 127
0.07938474 -0.16575204 1.173 27 16 10
0.08143397 -0.16575204 1.173 31 20 14
0.08348319 -0.16575204 1.173 49 44 40
0.08553241 -0.16575204 1.173 47 44 39
0.08758164 -0.16575204 1.173 52 47 43
0.089630865 -0.16575204 1.173 50 44 48
0.091680095 -0.16575204 1.173 31 23 44
0.09372932 -0.16575204 1.173 8 3 35
0.09610515 -0.16631725 1.177 89 89 127
0.09816137 -0.16631725 1.177 174 178 213
0.10021758 -0.16631725 1.177 218 225 251
0.10227379 -0.16631725 1.177 217 224 240
0.10433 -0.16631725 1.177 214 216 228
0.10638622 -0.16631725 1.177 217 217 227
0.10844243 -0.16631725 1.177 218 220 233
0.110498644 -0.16631725 1.177 217 221 232
0.11255486 -0.16631725 1.177 217 221 230
0.114611074 -0.16631725 1.177 224 228 227
0.116667286 -0.16631725 1.177 165 163 150
0.118723504 -0.16631725 1.177 39 33 19
0.120779715 -0.16631725 1.177 14 5 0
0.12283593 -0.16631725 1.177 35 26 27
0.12489214 -0.16631725 1.177 7 3 2
0.12694836 -0.16631725 1.177 47 49 48
0.12900457 -0.16631725 1.177 153 157 156
0.13106078 -0.16631725 1.177 165 167 164
0.13311699 -0.16631725 1.177 164 156 154
0.1351732 -0.16631725 1.177 159 145 144
0.13769579 -0.16688249 1.181 132 114 112
0.13975899 -0.16688249 1.181 35 20 17
0.14182219 -0.16688249 1.181 21 13 10
0.14388539 -0.16688249 1.181 45 41 40
0.1459486 -0.16688249 1.181 43 38 44
0.1480118 -0.16688249 1.181 45 39 51
-0.24749708 -0.11820953 0.847 44 32 34
-0.24543646 -0.11793041 0.845 53 44 47
-0.24396025 -0.11793041 0.845 62 63 68
-0.24248405 -0.11793041 0.845 61 68 74
-0.24100783 -0.11793041 0.845 64 73 80
-0.23953162 -0.11793041 0.845 66 75 80
-0.23805541 -0.11793041 0.845 60 65 71
-0.2365792 -0.11793041 0.845 63 66 73
-0.23510298 -0.11793041 0.845 65 68 73
-0.23362677 -0.11793041 0.845 65 68 73
-0.23215057 -0.11793041 0.845 63 68 72
-0.23012838 -0.117651284 0.843 61 64 73
-0.22865567 -0.117651284 0.843 56 55 69
-0.22664396 -0.11737216 0.841 46 43 60
-0.22517474 -0.11737216 0.841 36 33 52
-0.22370552 -0.11737216 0.841 38 34 49
-0.22223629 -0.11737216 0.841 54 51 60
-0.22129208 -0.117651284 0.843 70 68 71
-0.21981935 -0.117651284 0.843 75 71 68
-0.26237857 -0.14137693 1.013 75 75 67
-0.26060888 -0.14137693 1.013 76 76 66
-0.25883916 -0.14137693 1.013 77 77 65
-0.25706947 -0.14137693 1.013 76 77 63
-0.25529978 -0.14137693 1.013 75 77 63
-0.25353006 -0.14137693 1.013 75 77 63
-0.25250593 -0.14179562 1.016 75 79 64
-0.250731 -0.14179562 1.016 72 76 62
-0.24895604 -0.14179562 1.016 70 76 62
-0.2471811 -0.14179562 1.016 72 78 66
-0.24540615 -0.14179562 1.016 74 80 68
-0.2436312 -0.14179562 1.016 74 80 70
-0.2425704 -0.14221431 1.019 73 79 69
-0.24008131 -0.14179562 1.016 72 79 71
-0.23830636 -0.14179562 1.016 72 79 71
-0.2365314 -0.14179562 1.016 74 79 72
-0.23475647 -0.14179562 1.016 74 79 72
-0.23298152 -0.14179562 1.016 74 80 70
-0.23052387 -0.14137693 1.013 74 80 68
-0.22875416 -0.14137693 1.013 77 80 69
-0.2283289 -0.14221431 1.019 77 81 67
-0.2265487 -0.14221431 1.019 77 81 67
-0.22476852 -0.14221431 1.019 77 81 66
-0.22298832 -0.14221431 1.019 79 83 69
-0.22120814 -0.14221431 1.019 79 83 69
-0.21942796 -0.14221431 1.019 78 82 68
-0.21764776 -0.14221431 1.019 78 81 70
-0.21586758 -0.14221431 1.019 77 80 71
-0.21408738 -0.14221431 1.019 75 78 71
-0.2123072 -0.14221431 1.019 75 78 71
-0.21052702 -0.14221431 1.019 76 79 72
-0.20874682 -0.14221431 1.019 76 77 71
-0.20635732 -0.14179562 1.016 75 76 68
-0.20458236 -0.14179562 1.016 73 76 65
-0.20280741 -0.14179562 1.016 74 78 64
-0.20162606 -0.14221431 1.019 74 78 64
-0.19984588 -0.14221431 1.019 73 77 62
-0.1980657 -0.14221431 1.019 73 77 62
-0.19686338 -0.14263299 1.022 73 77 62
-0.19507796 -0.14263299 1.022 73 77 63
-0.19329253 -0.14263299 1.022 74 78 64
-0.1915071 -0.14263299 1.022 75 77 66
-0.18916476 -0.14221431 1.019 75 77 66
-0.18738456 -0.14221431 1.019 75 77 66
-0.18560438 -0.14221431 1.019 76 78 67
-0.18382418 -0.14221431 1.019 72 73 65
-0.18150805 -0.14179562 1.016 68 69 61
-0.1792024 -0.14137693 1.013 71 72 67
-0.17743269 -0.14137693 1.013 67 68 62
-0.18849522 -0.15170456 1.087 65 63 51
-0.18539461 -0.15072763 1.08 84 81 66
-0.18350786 -0.15072763 1.08 130 124 108
-0.1816211 -0.15072763 1.08 140 135 116
-0.17973435 -0.15072763 1.08 138 135 116
-0.1778476 -0.15072763 1.08 137 136 118
-0.17596084 -0.15072763 1.08 140 141 123
-0.17407408 -0.15072763 1.08 144 143 123
-0.17218733 -0.15072763 1.08 149 147 126
-0.17030057 -0.15072763 1.08 151 149 126
-0.16903757 -0.15128587 1.084 154 149 127
-0.16714382 -0.15128587 1.084 154 149 127
-0.16525008 -0.15128587 1.084 153 151 128
-0.16335635 -0.15128587 1.084 154 152 131
-0.1614626 -0.15128587 1.084 158 153 134
-0.15956886 -0.15128587 1.084 157 154 137
-0.15767512 -0.15128587 1.084 157 156 136
-0.15578137 -0.15128587 1.084 159 158 138
-0.15388763 -0.15128587 1.084 162 160 139
-0.15199389 -0.15128587 1.084 165 160 140
-0.15010014 -0.15128587 1.084 167 161 139
-0.1482064 -0.15128587 1.084 167 161 139
-0.14671758 -0.15170456 1.087 167 162 140
-0.1448186 -0.15170456 1.087 164 162 141
-0.14331405 -0.15212326 1.09 164 161 142
-0.14140983 -0.15212326 1.09 165 159 143
-0.14001755 -0.1526815 1.094 164 156 143
-0.13810635 -0.1526815 1.094 164 154 144
-0.1365686 -0.15310019 1.097 167 157 148
-0.13465215 -0.15310019 1.097 165 151 142
-0.1327357 -0.15310019 1.097 166 144 133
-0.117940046 -0.13802743 0.989 134 104 94
-0.11621227 -0.13802743 0.989 111 71 61
-0.11483177 -0.13844612 0.992 106 56 45
-0.113440774 -0.1388648 0.995 113 53 43
-0.11170252 -0.1388648 0.995 118 52 40
-0.10996426 -0.1388648 0.995 116 46 34
-0.10789969 -0.13844612 0.992 115 43 29
-0.10616667 -0.13844612 0.992 125 51 38
-0.10443365 -0.13844612 0.992 138 62 49
-0.10270063 -0.13844612 0.992 149 70 57
-0.10066226 -0.13802743 0.989 150 68 54
-0.09893449 -0.13802743 0.989 145 62 46
-0.09750157 -0.13844612 0.992 146 60 45
-0.095768556 -0.13844612 0.992 147 61 44
-0.094035536 -0.13844612 0.992 147 64 46
-0.092302516 -0.13844612 0.992 144 61 45
-0.090843394 -0.1388648 0.995 149 63 50
-0.08937379 -0.1392835 0.998 157 67 59
-0.087630294 -0.1392835 0.998 142 57 52
-0.08588679 -0.1392835 0.998 111 41 39
-0.08414329 -0.1392835 0.998 52 2 3
-0.082399786 -0.1392835 0.998 40 10 18
-0.081141196 -0.14012086 1.004 33 21 33
-0.087373376 -0.15421669 1.105 27 22 42
-0.085442945 -0.15421669 1.105 23 21 45
-0.083512515 -0.15421669 1.105 22 22 48
-0.081803575 -0.15463538 1.108 22 24 49
-0.079651654 -0.15421669 1.105 21 22 50
-0.07772122 -0.15421669 1.105 22 22 50
-0.07579079 -0.15421669 1.105 24 21 50
-0.073593 -0.15365843 1.101 23 20 49
-0.07140917 -0.15310019 1.097 25 22 51
-0.06930268 -0.1526815 1.094 23 23 51
-0.06739146 -0.1526815 1.094 23 22 53
-0.06524084 -0.15212326 1.09 24 23 54
-0.06316229 -0.15170456 1.087 26 23 52
-0.061263308 -0.15170456 1.087 24 23 54
-0.059200484 -0.15128587 1.084 24 23 55
-0.057095278 -0.15072763 1.08 24 23 57
-0.055208523 -0.15072763 1.08 28 24 59
-0.053321768 -0.15072763 1.08 16 11 41
-0.05129214 -0.15030894 1.077 7 0 19
-0.049410623 -0.15030894 1.077 96 76 88
-0.04316014 -0.13649224 0.978 155 118 125
-0.041451577 -0.13649224 0.978 186 140 142
-0.039743017 -0.13649224 0.978 186 138 138
-0.038034454 -0.13649224 0.978 185 135 134
-0.036214463 -0.13607354 0.975 192 143 139
-0.034511145 -0.13607354 0.975 194 145 141
-0.032740526 -0.13579443 0.973 199 148 145
-0.030944994 -0.13537574 0.97 200 146 146
-0.029250408 -0.13537574 0.97 206 147 149
-0.027470598 -0.13495705 0.967 209 149 151
-0.025781253 -0.13495705 0.967 209 147 148
-0.024091909 -0.13495705 0.967 212 151 150
-0.022402566 -0.13495705 0.967 212 151 148
-0.020713221 -0.13495705 0.967 214 153 148
-0.019023877 -0.13495705 0.967 214 155 149
-0.017334532 -0.13495705 0.967 214 155 149
-0.015645187 -0.13495705 0.967 215 154 151
-0.013955843 -0.13495705 0.967 216 155 152
-0.012266499 -0.13495705 0.967 216 154 155
-0.010577154 -0.13495705 0.967 215 153 154
-0.00888781 -0.13495705 0.967 215 154 153
-0.0071984655 -0.13495705 0.967 216 155 154
-0.005509121 -0.13495705 0.967 214 155 149
-0.0038197767 -0.13495705 0.967 214 153 148
-0.0021304323 -0.13495705 0.967 215 152 147
-0.00044245625 -0.13537574 0.97 212 151 148
0.0012521292 -0.13537574 0.97 211 149 150
0.0029467146 -0.13537574 0.97 208 150 149
0.0046413 -0.13537574 0.97 206 151 148
0.0063358853 -0.13537574 0.97 200 147 143
0.008055307 -0.13579443 0.973 202 147 144
0.009755134 -0.13579443 0.973 179 127 129
0.01145496 -0.13579443 0.973 116 72 85
0.013154786 -0.13579443 0.973 75 46 68
0.017846908 -0.1631487 1.169 80 66 101
0.019889146 -0.1631487 1.169 71 67 100
0.021931384 -0.1631487 1.169 68 66 88
0.023973621 -0.1631487 1.169 88 87 101
0.02601586 -0.1631487 1.169 105 105 115
0.028058097 -0.1631487 1.169 110 111 116
0.030100334 -0.1631487 1.169 126 126 126
0.032032587 -0.16259044 1.165 145 141 138
0.034067836 -0.16259044 1.165 163 152 148
0.031857487 -0.14347038 1.028 173 154 150
0.033653397 -0.14347038 1.028 176 145 142
0.03544931 -0.14347038 1.028 188 144 143
0.03713653 -0.14305168 1.025 191 135 134
0.038927197 -0.14305168 1.025 189 128 125
0.04071787 -0.14305168 1.025 189 126 121
0.042384125 -0.14263299 1.022 181 121 111
0.044169553 -0.14263299 1.022 169 116 102
0.045954984 -0.14263299 1.022 187 143 130
0.05348608 -0.1597992 1.145 201 174 163
0.05548639 -0.1597992 1.145 222 209 201
0.057687525 -0.16035745 1.149 220 216 213
0.059902634 -0.1609157 1.153 207 211 212
0.062131725 -0.16147394 1.157 200 205 209
0.06437479 -0.1620322 1.161 204 209 213
0.06640305 -0.1620322 1.161 217 220 225
0.06866708 -0.16259044 1.165 227 232 236
0.07070233 -0.16259044 1.165 222 230 233
0.072737575 -0.16259044 1.165 226 232 232
0.07502956 -0.1631487 1.169 230 230 228
0.07707179 -0.1631487 1.169 180 175 169
0.079114035 -0.1631487 1.169 69 59 50
0.08115627 -0.1631487 1.169 24 14 5
0.08319851 -0.1631487 1.169 38 33 27
0.085240744 -0.1631487 1.169 51 48 43
0.087282985 -0.1631487 1.169 50 47 42
0.08932522 -0.1631487 1.169 49 44 48
0.09136746 -0.1631487 1.169 40 33 49
0.093409695 -0.1631487 1.169 16 14 38
0.09577854 -0.16370694 1.173 38 41 76
0.09782777 -0.16370694 1.173 132 138 174
0.09987699 -0.16370694 1.173 216 225 255
0.10192622 -0.16370694 1.173 218 225 251
0.103975445 -0.16370694 1.173 211 216 235
0.10602467 -0.16370694 1.173 210 213 228
0.1080739 -0.16370694 1.173 208 214 228
0.11012312 -0.16370694 1.173 211 219 230
0.11217234 -0.16370694 1.173 210 219 228
0.11422157 -0.16370694 1.173 223 232 231
0.116270795 -0.16370694 1.173 194 198 184
0.118320026 -0.16370694 1.173 99 98 78
0.120779715 -0.1642652 1.177 34 25 8
0.12283593 -0.1642652 1.177 40 31 16
0.12489214 -0.1642652 1.177 16 9 0
0.12694836 -0.1642652 1.177 80 77 72
0.12900457 -0.1642652 1.177 196 198 195
0.13106078 -0.1642652 1.177 205 203 204
0.13311699 -0.1642652 1.177 210 199 205
0.1351732 -0.1642652 1.177 215 198 204
0.13722943 -0.1642652 1.177 185 166 168
0.13928564 -0.1642652 1.177 48 32 32
0.14134185 -0.1642652 1.177 14 9 5
0.14339806 -0.1642652 1.177 44 43 41
0.14545427 -0.1642652 1.177 44 42 45
0.14751048 -0.1642652 1.177 44 41 50
0.1495667 -0.1642652 1.177 39 35 50
-0.34918955 -0.15628693 1.134 45 43 46
-0.34720847 -0.15628693 1.134 48 43 47
-0.24691267 -0.11645719 0.845 35 15 17
-0.24543646 -0.11645719 0.845 19 3 6
-0.24396025 -0.11645719 0.845 43 41 44
-0.24248405 -0.11645719 0.845 47 52 56
-0.24100783 -0.11645719 0.845 51 58 64
-0.23953162 -0.11645719 0.845 56 63 69
-0.23749197 -0.116181545 0.843 58 63 69
-0.23601925 -0.116181545 0.843 58 63 67
-0.23454653 -0.116181545 0.843 55 60 64
-0.23362677 -0.11645719 0.845 55 60 64
-0.23215057 -0.11645719 0.845 49 52 59
-0.23012838 -0.116181545 0.843 48 48 60
-0.22811317 -0.1159059 0.841 45 41 58
-0.22664396 -0.1159059 0.841 41 34 52
-0.22517474 -0.1159059 0.841 38 31 49
-0.22370552 -0.1159059 0.841 42 38 52
-0.22223629 -0.1159059 0.841 60 57 64
-0.22129208 -0.116181545 0.843 76 76 76
-0.26258373 -0.13878389 1.007 82 81 77
-0.26082453 -0.13878389 1.007 83 83 75
-0.2598371 -0.13919735 1.01 85 85 75
-0.2580726 -0.13919735 1.01 84 86 73
-0.25630817 -0.13919735 1.01 83 85 72
-0.2545437 -0.13919735 1.01 83 85 71
-0.25353006 -0.1396108 1.013 83 87 72
-0.25176036 -0.1396108 1.013 83 87 72
-0.24999064 -0.1396108 1.013 81 87 73
-0.24822094 -0.1396108 1.013 81 87 73
-0.24645123 -0.1396108 1.013 83 89 77
-0.24468152 -0.1396108 1.013 86 92 80
-0.2436312 -0.14002426 1.016 84 90 80
-0.24185626 -0.14002426 1.016 81 87 77
-0.2393724 -0.1396108 1.013 78 86 75
-0.2376027 -0.1396108 1.013 79 86 78
-0.2365314 -0.14002426 1.016 79 84 77
-0.23406328 -0.1396108 1.013 82 87 80
-0.23229358 -0.1396108 1.013 84 90 80
-0.23052387 -0.1396108 1.013 83 89 77
-0.22875416 -0.1396108 1.013 84 87 76
-0.22698446 -0.1396108 1.013 83 87 73
-0.22521475 -0.1396108 1.013 83 87 73
-0.22344506 -0.1396108 1.013 83 87 72
-0.22167535 -0.1396108 1.013 89 93 78
-0.21990564 -0.1396108 1.013 87 91 76
-0.21878195 -0.14002426 1.016 87 91 77
-0.217007 -0.14002426 1.016 88 91 80
-0.21523204 -0.14002426 1.016 88 91 82
-0.21345711 -0.14002426 1.016 87 90 81
-0.21168216 -0.14002426 1.016 85 88 81
-0.2099072 -0.14002426 1.016 86 89 82
-0.20813225 -0.14002426 1.016 84 85 79
-0.20635732 -0.14002426 1.016 83 84 76
-0.20458236 -0.14002426 1.016 82 85 76
-0.20280741 -0.14002426 1.016 82 85 76
-0.20103247 -0.14002426 1.016 82 85 74
-0.19984588 -0.14043772 1.019 81 84 73
-0.1980657 -0.14043772 1.019 80 83 72
-0.1962855 -0.14043772 1.019 80 83 72
-0.19450532 -0.14043772 1.019 81 84 73
-0.19272512 -0.14043772 1.019 79 82 71
-0.19094494 -0.14043772 1.019 80 82 71
-0.18916476 -0.14043772 1.019 78 80 69
-0.18738456 -0.14043772 1.019 79 81 68
-0.18560438 -0.14043772 1.019 81 83 69
-0.183283 -0.14002426 1.016 80 82 68
-0.1809721 -0.1396108 1.013 78 80 66
-0.1792024 -0.1396108 1.013 75 79 65
-0.17743269 -0.1396108 1.013 73 75 61
-0.18849522 -0.14980942 1.087 62 61 43
-0.18608126 -0.14939596 1.084 76 74 53
-0.18418752 -0.14939596 1.084 133 128 106
-0.18229377 -0.14939596 1.084 140 138 115
-0.18040003 -0.14939596 1.084 138 136 115
-0.17850628 -0.14939596 1.084 141 140 120
-0.17661254 -0.14939596 1.084 139 141 120
-0.1747188 -0.14939596 1.084 141 143 122
-0.17282505 -0.14939596 1.084 147 145 124
-0.17093131 -0.14939596 1.084 149 147 126
-0.16903757 -0.14939596 1.084 152 147 125
-0.16714382 -0.14939596 1.084 152 150 127
-0.16525008 -0.14939596 1.084 154 153 132
-0.16335635 -0.14939596 1.084 156 155 135
-0.1614626 -0.14939596 1.084 159 156 139
-0.15956886 -0.14939596 1.084 159 156 141
-0.15767512 -0.14939596 1.084 159 157 142
-0.15578137 -0.14939596 1.084 160 159 141
-0.15388763 -0.14939596 1.084 160 159 139
-0.15199389 -0.14939596 1.084 162 160 139
-0.15051554 -0.14980942 1.087 164 159 137
-0.14861657 -0.14980942 1.087 164 158 136
-0.14671758 -0.14980942 1.087 166 160 138
-0.14521828 -0.15022287 1.09 164 159 139
-0.14331405 -0.15022287 1.09 166 161 142
-0.14192876 -0.15077415 1.094 172 166 150
-0.14001755 -0.15077415 1.094 180 172 161
-0.13810635 -0.15077415 1.094 184 174 165
-0.1365686 -0.15118761 1.097 184 171 165
-0.13465215 -0.15118761 1.097 174 155 149
-0.122571796 -0.1396108 1.013 162 132 124
-0.12008658 -0.13878389 1.007 124 84 74
-0.11656478 -0.1367166 0.992 95 47 35
-0.11483177 -0.1367166 0.992 108 52 39
-0.11378281 -0.13754351 0.998 120 57 42
-0.11203931 -0.13754351 0.998 120 53 37
-0.10996426 -0.13713005 0.995 110 41 25
-0.108225994 -0.13713005 0.995 101 28 13
-0.10616667 -0.1367166 0.992 108 32 19
-0.10443365 -0.1367166 0.992 119 41 29
-0.10270063 -0.1367166 0.992 132 50 39
-0.10096761 -0.1367166 0.992 135 51 41
-0.09923459 -0.1367166 0.992 135 48 38
-0.09750157 -0.1367166 0.992 135 49 36
-0.095768556 -0.1367166 0.992 136 53 37
-0.094035536 -0.1367166 0.992 139 56 38
-0.09258165 -0.13713005 0.995 143 60 44
-0.09111729 -0.13754351 0.998 139 56 40
-0.08937379 -0.13754351 0.998 136 48 38
-0.087630294 -0.13754351 0.998 130 45 38
-0.08614497 -0.13795698 1.001 115 37 35
-0.08439623 -0.13795698 1.001 66 4 5
-0.082895175 -0.13837042 1.004 44 3 9
-0.081141196 -0.13837042 1.004 36 13 23
-0.087373376 -0.15229017 1.105 27 16 32
-0.085442945 -0.15229017 1.105 20 18 39
-0.083512515 -0.15229017 1.105 19 19 43
-0.081803575 -0.15270361 1.108 20 22 47
-0.07986791 -0.15270361 1.108 20 20 46
-0.07793223 -0.15270361 1.108 22 20 44
-0.07579079 -0.15229017 1.105 25 19 45
-0.073593 -0.15173888 1.101 24 18 44
-0.071669556 -0.15173888 1.101 23 21 45
-0.069746114 -0.15173888 1.101 21 21 45
-0.06757627 -0.15118761 1.097 22 22 48
-0.065480255 -0.15077415 1.094 23 23 49
-0.06333661 -0.15022287 1.09 25 22 49
-0.061263308 -0.14980942 1.087 25 22 49
-0.059364323 -0.14980942 1.087 25 22 53
-0.05730674 -0.14939596 1.084 23 22 54
-0.055413 -0.14939596 1.084 26 22 55
-0.053519256 -0.14939596 1.084 18 12 40
-0.051435012 -0.14884469 1.08 20 5 26
-0.049548257 -0.14884469 1.08 119 95 108
-0.04316014 -0.13478713 0.978 169 130 135
-0.041451577 -0.13478713 0.978 175 129 129
-0.039743017 -0.13478713 0.978 181 133 131
-0.037917785 -0.13437368 0.975 189 140 136
-0.036214463 -0.13437368 0.975 190 141 136
-0.034440354 -0.13409804 0.973 193 142 138
-0.032639578 -0.13368458 0.97 201 147 145
-0.030944994 -0.13368458 0.97 202 146 145
-0.029159943 -0.13327111 0.967 206 148 147
-0.027470598 -0.13327111 0.967 210 150 150
-0.025781253 -0.13327111 0.967 210 149 148
-0.024091909 -0.13327111 0.967 212 151 148
-0.022333063 -0.13285767 0.964 212 151 146
-0.02064896 -0.13285767 0.964 212 151 146
-0.018964857 -0.13285767 0.964 212 153 147
-0.017280754 -0.13285767 0.964 212 153 147
-0.015596651 -0.13285767 0.964 214 153 150
-0.013912546 -0.13285767 0.964 214 153 150
-0.012228443 -0.13285767 0.964 215 154 153
-0.01054434 -0.13285767 0.964 215 153 154
-0.008860237 -0.13285767 0.964 215 154 153
-0.0071984655 -0.13327111 0.967 215 154 153
-0.005509121 -0.13327111 0.967 213 154 150
-0.0038197767 -0.13327111 0.967 211 152 148
-0.0021304323 -0.13327111 0.967 211 150 147
-0.00044108782 -0.13327111 0.967 210 149 148
0.0012482565 -0.13327111 0.967 209 149 149
0.0029467146 -0.13368458 0.97 207 149 148
0.0046413 -0.13368458 0.97 204 149 146
0.0063358853 -0.13368458 0.97 198 143 140
0.008055307 -0.13409804 0.973 204 146 144
0.009755134 -0.13409804 0.973 191 136 141
0.01145496 -0.13409804 0.973 126 79 95
0.013222385 -0.13478713 0.978 63 26 57
0.014930947 -0.13478713 0.978 82 61 104
0.019957202 -0.16166186 1.173 75 64 106
0.021931384 -0.1611106 1.169 89 84 114
0.023973621 -0.1611106 1.169 117 116 134
0.02601586 -0.1611106 1.169 133 131 142
0.028058097 -0.1611106 1.169 120 115 121
0.030100334 -0.1611106 1.169 117 107 106
0.032032587 -0.16055931 1.165 132 114 110
0.030061577 -0.1416781 1.028 159 134 129
0.031857487 -0.1416781 1.028 182 149 144
0.033653397 -0.1416781 1.028 189 148 144
0.03544931 -0.1416781 1.028 197 146 143
0.03713653 -0.14126463 1.025 195 136 132
0.038927197 -0.14126463 1.025 193 128 124
0.04071787 -0.14126463 1.025 193 128 122
0.042384125 -0.14085117 1.022 180 120 112
0.044169553 -0.14085117 1.022 168 116 105
0.045954984 -0.14085117 1.022 202 162 152
0.05348608 -0.15780292 1.145 216 193 187
0.05548639 -0.15780292 1.145 224 214 212
0.057486698 -0.15780292 1.145 217 217 217
0.059902634 -0.15890548 1.153 203 208 211
0.062131725 -0.15945676 1.157 200 205 209
0.064153 -0.15945676 1.157 218 223 227
0.06617427 -0.15945676 1.157 235 238 245
0.06843131 -0.16000803 1.161 239 244 250
0.07070233 -0.16055931 1.165 224 231 237
0.072737575 -0.16055931 1.165 222 230 233
0.07477283 -0.16055931 1.165 230 232 231
0.07680807 -0.16055931 1.165 203 200 195
0.079114035 -0.1611106 1.169 127 118 111
0.08115627 -0.1611106 1.169 32 22 13
0.08319851 -0.1611106 1.169 18 11 3
0.085240744 -0.1611106 1.169 51 48 41
0.087282985 -0.1611106 1.169 50 45 41
0.08932522 -0.1611106 1.169 49 45 46
0.09136746 -0.1611106 1.169 47 41 53
0.093409695 -0.1611106 1.169 28 25 46
0.09545193 -0.1611106 1.169 3 3 37
0.09749417 -0.1611106 1.169 77 81 119
0.099536404 -0.1611106 1.169 208 216 252
0.101578645 -0.1611106 1.169 215 224 253
0.10362088 -0.1611106 1.169 211 217 239
0.10566312 -0.1611106 1.169 212 218 232
0.107705355 -0.1611106 1.169 210 216 228
0.109747596 -0.1611106 1.169 213 222 231
0.11178983 -0.1611106 1.169 215 224 231
0.11383207 -0.1611106 1.169 220 228 230
0.115874305 -0.1611106 1.169 207 212 205
0.11791655 -0.1611106 1.169 165 166 152
0.12036925 -0.16166186 1.173 110 103 85
0.12241847 -0.16166186 1.173 89 80 63
0.1244677 -0.16166186 1.173 83 76 66
0.12651692 -0.16166186 1.173 124 123 118
0.12856615 -0.16166186 1.173 193 195 194
0.13106078 -0.16221315 1.177 202 201 206
0.13311699 -0.16221315 1.177 211 199 209
0.13471383 -0.16166186 1.173 224 208 218
0.13676305 -0.16166186 1.173 204 187 197
0.13881227 -0.16166186 1.173 62 47 54
0.1408615 -0.16166186 1.173 17 11 13
0.14291073 -0.16166186 1.173 44 42 45
0.14495996 -0.16166186 1.173 38 36 41
0.14700918 -0.16166186 1.173 40 37 44
0.1490584 -0.16166186 1.173 39 37 50
-0.34993196 -0.15376553 1.13 47 41 45
-0.34795785 -0.15376553 1.13 46 42 43
-0.34475902 -0.15322122 1.126 45 43 44
-0.34279191 -0.15322122 1.126 45 45 45
-0.24691267 -0.11498395 0.845 91 59 62
-0.24485555 -0.114711806 0.843 32 6 7
-0.24338283 -0.114711806 0.843 4 0 0
-0.24191011 -0.114711806 0.843 21 26 22
-0.2404374 -0.114711806 0.843 35 33 36
-0.23896468 -0.114711806 0.843 33 31 36
-0.23749197 -0.114711806 0.843 36 39 44
-0.23601925 -0.114711806 0.843 31 39 42
-0.23454653 -0.114711806 0.843 28 36 39
-0.23307382 -0.114711806 0.843 32 40 43
-0.23160109 -0.114711806 0.843 37 40 47
-0.2295824 -0.11443965 0.841 37 35 46
-0.22811317 -0.11443965 0.841 38 32 46
-0.22664396 -0.11443965 0.841 39 31 46
-0.22517474 -0.11443965 0.841 42 34 47
-0.22370552 -0.11443965 0.841 48 42 52
-0.22223629 -0.11443965 0.841 56 55 60
-0.26434296 -0.13702822 1.007 66 67 69
-0.26258373 -0.13702822 1.007 66 66 66
-0.26082453 -0.13702822 1.007 67 67 67
-0.2598371 -0.13743645 1.01 67 67 65
-0.2580726 -0.13743645 1.01 67 68 63
-0.25630817 -0.13743645 1.01 67 68 63
-0.2545437 -0.13743645 1.01 66 69 62
-0.25277922 -0.13743645 1.01 67 70 63
-0.25176036 -0.13784467 1.013 67 70 63
-0.24999064 -0.13784467 1.013 67 69 64
-0.24822094 -0.13784467 1.013 67 69 64
-0.24572137 -0.13743645 1.01 67 72 68
-0.2439569 -0.13743645 1.01 69 74 70
-0.24219243 -0.13743645 1.01 68 73 69
-0.24114211 -0.13784467 1.013 66 71 67
-0.23866351 -0.13743645 1.01 67 72 68
-0.23689903 -0.13743645 1.01 70 75 71
-0.23583299 -0.13784467 1.013 78 80 75
-0.23406328 -0.13784467 1.013 84 87 80
-0.23229358 -0.13784467 1.013 89 92 83
-0.23052387 -0.13784467 1.013 91 94 83
-0.22875416 -0.13784467 1.013 90 93 82
-0.22698446 -0.13784467 1.013 90 94 80
-0.22521475 -0.13784467 1.013 90 94 80
-0.22344506 -0.13784467 1.013 91 95 81
-0.22101885 -0.13743645 1.01 91 95 81
-0.21925439 -0.13743645 1.01 84 88 74
-0.21813594 -0.13784467 1.013 77 80 69
-0.21636623 -0.13784467 1.013 75 78 67
-0.21459652 -0.13784467 1.013 73 79 69
-0.21282682 -0.13784467 1.013 73 79 69
-0.21105711 -0.13784467 1.013 74 80 70
-0.2092874 -0.13784467 1.013 77 80 73
-0.2075177 -0.13784467 1.013 75 75 73
-0.20574799 -0.13784467 1.013 75 75 73
-0.20397829 -0.13784467 1.013 76 76 74
-0.20220858 -0.13784467 1.013 77 77 75
-0.20103247 -0.1382529 1.016 77 79 76
-0.19925752 -0.1382529 1.016 77 79 76
-0.19748257 -0.1382529 1.016 76 78 75
-0.1962855 -0.13866113 1.019 76 78 75
-0.19450532 -0.13866113 1.019 77 79 74
-0.19272512 -0.13866113 1.019 74 77 70
-0.19094494 -0.13866113 1.019 79 82 73
-0.18916476 -0.13866113 1.019 80 84 70
-0.18738456 -0.13866113 1.019 81 85 70
-0.18560438 -0.13866113 1.019 84 88 71
-0.183283 -0.1382529 1.016 83 88 68
-0.1809721 -0.13784467 1.013 84 89 67
-0.1792024 -0.13784467 1.013 78 82 59
-0.17743269 -0.13784467 1.013 80 82 58
-0.18901545 -0.1483225 1.09 60 60 32
-0.18659624 -0.14791428 1.087 65 64 33
-0.18418752 -0.14750604 1.084 135 132 101
-0.18229377 -0.14750604 1.084 135 134 104
-0.18040003 -0.14750604 1.084 132 130 105
-0.17850628 -0.14750604 1.084 139 138 117
-0.17661254 -0.14750604 1.084 136 137 119
-0.1747188 -0.14750604 1.084 139 140 122
-0.17282505 -0.14750604 1.084 146 143 126
-0.17093131 -0.14750604 1.084 148 145 128
-0.16903757 -0.14750604 1.084 148 145 128
-0.16714382 -0.14750604 1.084 149 146 129
-0.16525008 -0.14750604 1.084 148 146 131
-0.16335635 -0.14750604 1.084 149 147 132
-0.1614626 -0.14750604 1.084 152 148 136
-0.15956886 -0.14750604 1.084 151 148 133
-0.15767512 -0.14750604 1.084 153 151 136
-0.15578137 -0.14750604 1.084 157 156 138
-0.15431352 -0.14791428 1.087 161 160 142
-0.15241453 -0.14791428 1.087 168 167 147
-0.15051554 -0.14791428 1.087 178 173 154
-0.14861657 -0.14791428 1.087 182 175 157
-0.14671758 -0.14791428 1.087 190 181 164
-0.14521828 -0.1483225 1.09 192 183 166
-0.14331405 -0.1483225 1.09 191 186 167
-0.14192876 -0.1488668 1.094 188 182 166
-0.14001755 -0.1488668 1.094 180 173 157
-0.13848506 -0.14927503 1.097 171 161 149
-0.1365686 -0.14927503 1.097 161 144 134
-0.12507798 -0.13866113 1.019 150 123 114
-0.122571796 -0.13784467 1.013 131 91 81
-0.12008658 -0.13702822 1.007 108 59 45
-0.11797484 -0.13661999 1.004 91 33 19
-0.11587358 -0.13621177 1.001 113 52 34
-0.11412484 -0.13621177 1.001 124 59 39
-0.11203931 -0.13580354 0.998 124 56 35
-0.11029581 -0.13580354 0.998 120 49 29
-0.108225994 -0.1353953 0.995 113 40 23
-0.106487736 -0.1353953 0.995 108 32 18
-0.10474948 -0.1353953 0.995 103 23 12
-0.10270063 -0.13498709 0.992 104 19 14
-0.10096761 -0.13498709 0.992 112 24 20
-0.09923459 -0.13498709 0.992 119 32 25
-0.09750157 -0.13498709 0.992 121 34 25
-0.096058175 -0.1353953 0.995 116 32 21
-0.09431992 -0.1353953 0.995 113 30 16
-0.09258165 -0.1353953 0.995 113 30 14
-0.09111729 -0.13580354 0.998 131 48 32
-0.08937379 -0.13580354 0.998 137 55 41
-0.087630294 -0.13580354 0.998 149 67 56
-0.08614497 -0.13621177 1.001 146 63 59
-0.08439623 -0.13621177 1.001 108 32 32
-0.082895175 -0.13661999 1.004 65 6 10
-0.081141196 -0.13661999 1.004 44 4 12
-0.08761059 -0.15077186 1.108 34 16 28
-0.08567492 -0.15077186 1.108 22 18 33
-0.08373924 -0.15077186 1.108 19 20 41
-0.082098894 -0.15131617 1.112 18 18 42
-0.08015624 -0.15131617 1.112 19 17 41
-0.07821358 -0.15131617 1.112 20 16 39
-0.07599656 -0.15077186 1.108 26 18 39
-0.07386037 -0.15036364 1.105 27 19 40
-0.071669556 -0.14981933 1.101 23 20 41
-0.069746114 -0.14981933 1.101 21 19 40
-0.06782267 -0.14981933 1.101 22 20 42
-0.065480255 -0.1488668 1.094 23 21 45
-0.06356904 -0.1488668 1.094 25 21 46
-0.061432388 -0.1483225 1.09 24 21 48
-0.059528165 -0.1483225 1.09 24 21 52
-0.05746534 -0.14791428 1.087 25 22 53
-0.055566356 -0.14791428 1.087 21 20 52
-0.053519256 -0.14750604 1.084 18 9 38
-0.051625513 -0.14750604 1.084 39 17 40
-0.0448687 -0.13308202 0.978 135 104 119
-0.04316014 -0.13308202 0.978 173 132 136
-0.041451577 -0.13308202 0.978 175 129 129
-0.039743017 -0.13308202 0.978 180 132 128
-0.037917785 -0.1326738 0.975 182 133 128
-0.036140177 -0.13240165 0.973 186 137 132
-0.034334164 -0.13199341 0.97 191 141 134
-0.03253863 -0.1315852 0.967 201 148 144
-0.030849287 -0.1315852 0.967 205 150 147
-0.029159943 -0.1315852 0.967 210 152 150
-0.027470598 -0.1315852 0.967 214 154 153
-0.025701271 -0.13117696 0.964 214 153 152
-0.024017168 -0.13117696 0.964 214 153 150
-0.022333063 -0.13117696 0.964 215 154 149
-0.02064896 -0.13117696 0.964 214 153 148
-0.018964857 -0.13117696 0.964 211 152 146
-0.017280754 -0.13117696 0.964 211 152 146
-0.015596651 -0.13117696 0.964 211 152 148
-0.013912546 -0.13117696 0.964 212 153 149
-0.012228443 -0.13117696 0.964 215 154 153
-0.01054434 -0.13117696 0.964 216 155 154
-0.008860237 -0.13117696 0.964 213 153 152
-0.0071984655 -0.1315852 0.967 213 153 152
-0.005509121 -0.1315852 0.967 212 153 149
-0.0038197767 -0.1315852 0.967 210 151 147
-0.0021304323 -0.1315852 0.967 209 148 147
-0.00044108782 -0.1315852 0.967 209 147 148
0.0012482565 -0.1315852 0.967 207 147 147
0.002937601 -0.1315852 0.967 205 147 146
0.0046413 -0.13199341 0.97 198 143 138
0.0063358853 -0.13199341 0.97 196 141 136
0.008055307 -0.13240165 0.973 203 145 143
0.009755134 -0.13240165 0.973 202 145 151
0.01145496 -0.13240165 0.973 152 101 118
0.013222385 -0.13308202 0.978 86 45 77
0.014930947 -0.13308202 0.978 80 51 97
0.019889146 -0.15907247 1.169 64 47 92
0.021931384 -0.15907247 1.169 55 51 84
0.023973621 -0.15907247 1.169 109 110 131
0.02601586 -0.15907247 1.169 160 157 168
0.028058097 -0.15907247 1.169 170 159 163
0.026624247 -0.14070226 1.034 172 148 146
0.028348153 -0.14029403 1.031 173 138 132
0.030061577 -0.13988581 1.028 184 141 135
0.031857487 -0.13988581 1.028 196 147 142
0.033653397 -0.13988581 1.028 196 146 139
0.03544931 -0.13988581 1.028 197 142 137
0.03713653 -0.13947758 1.025 194 133 128
0.038927197 -0.13947758 1.025 197 132 126
0.04071787 -0.13947758 1.025 193 128 122
0.042384125 -0.13906935 1.022 179 116 111
0.044169553 -0.13906935 1.022 164 109 104
0.045954984 -0.13906935 1.022 200 159 155
0.05348608 -0.15580666 1.145 211 193 191
0.05548639 -0.15580666 1.145 205 201 202
0.057486698 -0.15580666 1.145 204 207 212
0.059902634 -0.15689526 1.153 212 217 223
0.062131725 -0.15743957 1.157 222 227 233
0.064153 -0.15743957 1.157 237 242 248
0.06617427 -0.15743957 1.157 238 241 250
0.068195544 -0.15743957 1.157 231 235 244
0.070459574 -0.15798387 1.161 223 232 241
0.07248783 -0.15798387 1.161 224 231 239
0.074516095 -0.15798387 1.161 227 231 234
0.07654436 -0.15798387 1.161 213 212 210
0.078572616 -0.15798387 1.161 177 167 165
0.08087858 -0.15852818 1.165 44 33 27
0.08291382 -0.15852818 1.165 8 1 0
0.084949076 -0.15852818 1.165 53 48 42
0.08698432 -0.15852818 1.165 57 49 46
0.089019574 -0.15852818 1.165 50 44 44
0.09105482 -0.15852818 1.165 50 43 51
0.09309007 -0.15852818 1.165 46 39 57
0.095125325 -0.15852818 1.165 6 2 35
0.09716057 -0.15852818 1.165 42 41 81
0.09919582 -0.15852818 1.165 195 198 239
0.10123107 -0.15852818 1.165 214 220 252
0.10326632 -0.15852818 1.165 216 223 242
0.10530157 -0.15852818 1.165 220 227 237
0.10733682 -0.15852818 1.165 221 226 230
0.109372064 -0.15852818 1.165 217 222 226
0.11140732 -0.15852818 1.165 219 224 230
0.11344257 -0.15852818 1.165 226 231 235
0.115477815 -0.15852818 1.165 223 227 228
0.11751307 -0.15852818 1.165 218 220 217
0.11954831 -0.15852818 1.165 215 211 208
0.121583566 -0.15852818 1.165 204 201 196
0.12361881 -0.15852818 1.165 203 203 201
0.12565406 -0.15852818 1.165 196 198 197
0.12856615 -0.15961678 1.173 186 192 192
0.13061537 -0.15961678 1.173 139 142 147
0.1326646 -0.15961678 1.173 82 76 86
0.13425444 -0.15907247 1.169 77 65 79
0.13629667 -0.15907247 1.169 79 64 83
0.13833892 -0.15907247 1.169 30 17 35
0.14038116 -0.15907247 1.169 23 17 31
0.14242339 -0.15907247 1.169 43 41 52
0.14446563 -0.15907247 1.169 41 38 47
0.14650787 -0.15907247 1.169 41 38 45
0.14855011 -0.15907247 1.169 37 36 41
-0.34869325 -0.15125808 1.126 48 42 46
-0.34672615 -0.15125808 1.126 45 43 44
-0.34475902 -0.15125808 1.126 46 48 47
-0.34187862 -0.15085508 1.123 48 50 49
-0.33991674 -0.15085508 1.123 47 49 46
-0.24427463 -0.1129734 0.841 52 26 25
-0.2428054 -0.1129734 0.841 11 4 0
-0.24133618 -0.1129734 0.841 1 2 0
-0.2404374 -0.11324206 0.843 17 12 9
-0.23896468 -0.11324206 0.843 24 18 20
-0.23692852 -0.1129734 0.841 24 23 28
-0.2354593 -0.1129734 0.841 21 24 29
-0.23454653 -0.11324206 0.843 27 32 36
-0.23307382 -0.11324206 0.843 26 31 35
-0.23160109 -0.11324206 0.843 33 34 39
-0.2295824 -0.1129734 0.841 33 32 38
-0.22811317 -0.1129734 0.841 35 32 39
-0.22664396 -0.1129734 0.841 41 36 42
-0.22517474 -0.1129734 0.841 47 41 45
-0.27025542 -0.13648154 1.016 51 46 50
-0.2676877 -0.13607854 1.013 52 52 54
-0.26434296 -0.13527255 1.007 54 55 57
-0.26258373 -0.13527255 1.007 50 50 50
-0.26082453 -0.13527255 1.007 50 50 50
-0.2598371 -0.13567555 1.01 50 50 50
-0.2580726 -0.13567555 1.01 50 50 48
-0.25630817 -0.13567555 1.01 49 51 48
-0.2545437 -0.13567555 1.01 49 51 46
-0.25277922 -0.13567555 1.01 49 51 48
-0.25176036 -0.13607854 1.013 49 51 48
-0.24999064 -0.13607854 1.013 48 50 49
-0.24822094 -0.13607854 1.013 48 50 49
-0.24572137 -0.13567555 1.01 48 49 51
-0.2439569 -0.13567555 1.01 46 50 51
-0.24219243 -0.13567555 1.01 48 50 49
-0.24114211 -0.13607854 1.013 46 50 49
-0.23866351 -0.13567555 1.01 52 54 53
-0.23689903 -0.13567555 1.01 56 58 55
-0.23583299 -0.13607854 1.013 72 74 69
-0.23406328 -0.13607854 1.013 77 79 74
-0.23160565 -0.13567555 1.01 82 85 78
-0.22984117 -0.13567555 1.01 85 88 81
-0.22807671 -0.13567555 1.01 85 88 79
-0.22631225 -0.13567555 1.01 85 88 79
-0.22454779 -0.13567555 1.01 87 90 81
-0.22344506 -0.13607854 1.013 88 91 80
-0.22101885 -0.13567555 1.01 81 84 73
-0.21925439 -0.13567555 1.01 74 77 66
-0.21813594 -0.13607854 1.013 67 70 61
-0.21636623 -0.13607854 1.013 63 66 57
